ply
format ascii 1.0
element vertex 534
property float x
property float y
property float z
property uchar red
property uchar green
property uchar blue
end_header
-3.0000 -2.5000 -0.0035 180 180 180
-3.0000 -2.0000 -0.0070 180 180 180
-3.0000 -1.5000 0.0030 180 180 180
-3.0000 -1.0000 -0.0086 180 180 180
-3.0000 -0.5000 0.0007 180 180 180
-3.0000 0.0000 -0.0027 180 180 180
-3.0000 0.5000 -0.0088 180 180 180
-3.0000 1.0000 0.0001 180 180 180
-3.0000 1.5000 -0.0093 180 180 180
-3.0000 2.0000 -0.0013 180 180 180
-3.0000 2.5000 -0.0086 180 180 180
-2.5000 -2.5000 -0.0082 180 180 180
-2.5000 -2.0000 -0.0015 180 180 180
-2.5000 -1.5000 0.0065 180 180 180
-2.5000 -1.0000 -0.0075 180 180 180
-2.5000 -0.5000 -0.0055 180 180 180
-2.5000 0.0000 0.0025 180 180 180
-2.5000 0.5000 0.0090 180 180 180
-2.5000 1.0000 0.0015 180 180 180
-2.5000 1.5000 -0.0021 180 180 180
-2.5000 2.0000 0.0095 180 180 180
-2.5000 2.5000 -0.0091 180 180 180
-2.0000 -2.5000 0.0072 180 180 180
-2.0000 -2.0000 -0.0042 180 180 180
-2.0000 -1.5000 -0.0071 180 180 180
-2.0000 -1.0000 -0.0076 180 180 180
-2.0000 -0.5000 -0.0038 180 180 180
-2.0000 0.0000 0.0063 180 180 180
-2.0000 0.5000 -0.0064 180 180 180
-2.0000 1.0000 0.0016 180 180 180
-2.0000 1.5000 0.0028 180 180 180
-2.0000 2.0000 -0.0026 180 180 180
-2.0000 2.5000 0.0010 180 180 180
-1.5000 -2.5000 -0.0087 180 180 180
-1.5000 -2.0000 -0.0088 180 180 180
-1.5000 -1.5000 -0.0059 180 180 180
-1.5000 -1.0000 0.0036 180 180 180
-1.5000 -0.5000 -0.0014 180 180 180
-1.5000 0.0000 -0.0037 180 180 180
-1.5000 0.5000 0.0017 180 180 180
-1.5000 1.0000 -0.0009 180 180 180
-1.5000 1.5000 -0.0040 180 180 180
-1.5000 2.0000 0.0059 180 180 180
-1.5000 2.5000 0.0040 180 180 180
-1.0000 -2.5000 -0.0051 180 180 180
-1.0000 -2.0000 0.0015 180 180 180
-1.0000 -1.5000 0.0005 180 180 180
-1.0000 -1.0000 0.0075 180 180 180
-1.0000 -0.5000 0.0046 180 180 180
-1.0000 0.0000 -0.0042 180 180 180
-1.0000 0.5000 0.0096 180 180 180
-1.0000 1.0000 -0.0076 180 180 180
-1.0000 1.5000 -0.0016 180 180 180
-1.0000 2.0000 0.0051 180 180 180
-1.0000 2.5000 -0.0070 180 180 180
-0.5000 -2.5000 -0.0002 180 180 180
-0.5000 -2.0000 -0.0092 180 180 180
-0.5000 -1.5000 0.0034 180 180 180
-0.5000 -1.0000 0.0053 180 180 180
-0.5000 -0.5000 0.0015 180 180 180
-0.5000 0.0000 0.0075 180 180 180
-0.5000 0.5000 -0.0037 180 180 180
-0.5000 1.0000 0.0039 180 180 180
-0.5000 1.5000 0.0019 180 180 180
-0.5000 2.0000 0.0016 180 180 180
-0.5000 2.5000 -0.0009 180 180 180
0.0000 -2.5000 0.0068 180 180 180
0.0000 -2.0000 0.0089 180 180 180
0.0000 -1.5000 -0.0005 180 180 180
0.0000 -1.0000 0.0033 180 180 180
0.0000 -0.5000 -0.0088 180 180 180
0.0000 0.0000 0.0040 180 180 180
0.0000 0.5000 0.0029 180 180 180
0.0000 1.0000 0.0099 180 180 180
0.0000 1.5000 0.0064 180 180 180
0.0000 2.0000 -0.0043 180 180 180
0.0000 2.5000 -0.0023 180 180 180
0.5000 -2.5000 0.0034 180 180 180
0.5000 -2.0000 -0.0095 180 180 180
0.5000 -1.5000 -0.0008 180 180 180
0.5000 -1.0000 -0.0066 180 180 180
0.5000 -0.5000 -0.0077 180 180 180
0.5000 0.0000 -0.0088 180 180 180
0.5000 0.5000 0.0054 180 180 180
0.5000 1.0000 -0.0074 180 180 180
0.5000 1.5000 -0.0050 180 180 180
0.5000 2.0000 -0.0022 180 180 180
0.5000 2.5000 0.0074 180 180 180
1.0000 -2.5000 -0.0084 180 180 180
1.0000 -2.0000 -0.0010 180 180 180
1.0000 -1.5000 0.0010 180 180 180
1.0000 -1.0000 0.0077 180 180 180
1.0000 -0.5000 0.0064 180 180 180
1.0000 0.0000 0.0073 180 180 180
1.0000 0.5000 -0.0044 180 180 180
1.0000 1.0000 -0.0017 180 180 180
1.0000 1.5000 -0.0028 180 180 180
1.0000 2.0000 0.0077 180 180 180
1.0000 2.5000 0.0092 180 180 180
1.5000 -2.5000 -0.0070 180 180 180
1.5000 -2.0000 -0.0065 180 180 180
1.5000 -1.5000 -0.0054 180 180 180
1.5000 -1.0000 -0.0053 180 180 180
1.5000 -0.5000 -0.0003 180 180 180
1.5000 0.0000 0.0018 180 180 180
1.5000 0.5000 -0.0047 180 180 180
1.5000 1.0000 -0.0099 180 180 180
1.5000 1.5000 -0.0016 180 180 180
1.5000 2.0000 -0.0026 180 180 180
1.5000 2.5000 0.0013 180 180 180
2.0000 -2.5000 0.0091 180 180 180
2.0000 -2.0000 0.0038 180 180 180
2.0000 -1.5000 0.0003 180 180 180
2.0000 -1.0000 0.0024 180 180 180
2.0000 -0.5000 0.0035 180 180 180
2.0000 0.0000 -0.0089 180 180 180
2.0000 0.5000 0.0080 180 180 180
2.0000 1.0000 0.0056 180 180 180
2.0000 1.5000 0.0075 180 180 180
2.0000 2.0000 0.0060 180 180 180
2.0000 2.5000 -0.0022 180 180 180
2.5000 -2.5000 -0.0020 180 180 180
2.5000 -2.0000 -0.0079 180 180 180
2.5000 -1.5000 0.0027 180 180 180
2.5000 -1.0000 -0.0088 180 180 180
2.5000 -0.5000 -0.0087 180 180 180
2.5000 0.0000 -0.0058 180 180 180
2.5000 0.5000 -0.0068 180 180 180
2.5000 1.0000 -0.0032 180 180 180
2.5000 1.5000 -0.0089 180 180 180
2.5000 2.0000 -0.0100 180 180 180
2.5000 2.5000 -0.0070 180 180 180
3.0000 -2.5000 -0.0080 180 180 180
3.0000 -2.0000 -0.0027 180 180 180
3.0000 -1.5000 -0.0095 180 180 180
3.0000 -1.0000 0.0075 180 180 180
3.0000 -0.5000 0.0023 180 180 180
3.0000 0.0000 -0.0070 180 180 180
3.0000 0.5000 -0.0050 180 180 180
3.0000 1.0000 -0.0031 180 180 180
3.0000 1.5000 -0.0027 180 180 180
3.0000 2.0000 -0.0075 180 180 180
3.0000 2.5000 0.0070 180 180 180
-3.0000 2.5000 0.0000 200 200 210
-3.0000 -2.5000 0.0000 200 200 210
-3.0000 2.5000 0.4000 200 200 210
-3.0000 -2.5000 0.4000 200 200 210
-3.0000 2.5000 0.8000 200 200 210
-3.0000 -2.5000 0.8000 200 200 210
-3.0000 2.5000 1.2000 200 200 210
-3.0000 -2.5000 1.2000 200 200 210
-3.0000 2.5000 1.6000 200 200 210
-3.0000 -2.5000 1.6000 200 200 210
-3.0000 2.5000 2.0000 200 200 210
-3.0000 -2.5000 2.0000 200 200 210
-3.0000 2.5000 2.4000 200 200 210
-3.0000 -2.5000 2.4000 200 200 210
-2.5000 2.5000 0.0000 200 200 210
-2.5000 -2.5000 0.0000 200 200 210
-2.5000 2.5000 0.4000 200 200 210
-2.5000 -2.5000 0.4000 200 200 210
-2.5000 2.5000 0.8000 200 200 210
-2.5000 -2.5000 0.8000 200 200 210
-2.5000 2.5000 1.2000 200 200 210
-2.5000 -2.5000 1.2000 200 200 210
-2.5000 2.5000 1.6000 200 200 210
-2.5000 -2.5000 1.6000 200 200 210
-2.5000 2.5000 2.0000 200 200 210
-2.5000 -2.5000 2.0000 200 200 210
-2.5000 2.5000 2.4000 200 200 210
-2.5000 -2.5000 2.4000 200 200 210
-2.0000 2.5000 0.0000 200 200 210
-2.0000 -2.5000 0.0000 200 200 210
-2.0000 2.5000 0.4000 200 200 210
-2.0000 -2.5000 0.4000 200 200 210
-2.0000 2.5000 0.8000 200 200 210
-2.0000 -2.5000 0.8000 200 200 210
-2.0000 2.5000 1.2000 200 200 210
-2.0000 -2.5000 1.2000 200 200 210
-2.0000 2.5000 1.6000 200 200 210
-2.0000 -2.5000 1.6000 200 200 210
-2.0000 2.5000 2.0000 200 200 210
-2.0000 -2.5000 2.0000 200 200 210
-2.0000 2.5000 2.4000 200 200 210
-2.0000 -2.5000 2.4000 200 200 210
-1.5000 2.5000 0.0000 200 200 210
-1.5000 -2.5000 0.0000 200 200 210
-1.5000 2.5000 0.4000 200 200 210
-1.5000 -2.5000 0.4000 200 200 210
-1.5000 2.5000 0.8000 200 200 210
-1.5000 -2.5000 0.8000 200 200 210
-1.5000 2.5000 1.2000 200 200 210
-1.5000 -2.5000 1.2000 200 200 210
-1.5000 2.5000 1.6000 200 200 210
-1.5000 -2.5000 1.6000 200 200 210
-1.5000 2.5000 2.0000 200 200 210
-1.5000 -2.5000 2.0000 200 200 210
-1.5000 2.5000 2.4000 200 200 210
-1.5000 -2.5000 2.4000 200 200 210
-1.0000 2.5000 0.0000 200 200 210
-1.0000 -2.5000 0.0000 200 200 210
-1.0000 2.5000 0.4000 200 200 210
-1.0000 -2.5000 0.4000 200 200 210
-1.0000 2.5000 0.8000 200 200 210
-1.0000 -2.5000 0.8000 200 200 210
-1.0000 2.5000 1.2000 200 200 210
-1.0000 -2.5000 1.2000 200 200 210
-1.0000 2.5000 1.6000 200 200 210
-1.0000 -2.5000 1.6000 200 200 210
-1.0000 2.5000 2.0000 200 200 210
-1.0000 -2.5000 2.0000 200 200 210
-1.0000 2.5000 2.4000 200 200 210
-1.0000 -2.5000 2.4000 200 200 210
-0.5000 2.5000 0.0000 200 200 210
-0.5000 -2.5000 0.0000 200 200 210
-0.5000 2.5000 0.4000 200 200 210
-0.5000 -2.5000 0.4000 200 200 210
-0.5000 2.5000 0.8000 200 200 210
-0.5000 -2.5000 0.8000 200 200 210
-0.5000 2.5000 1.2000 200 200 210
-0.5000 -2.5000 1.2000 200 200 210
-0.5000 2.5000 1.6000 200 200 210
-0.5000 -2.5000 1.6000 200 200 210
-0.5000 2.5000 2.0000 200 200 210
-0.5000 -2.5000 2.0000 200 200 210
-0.5000 2.5000 2.4000 200 200 210
-0.5000 -2.5000 2.4000 200 200 210
0.0000 2.5000 0.0000 200 200 210
0.0000 -2.5000 0.0000 200 200 210
0.0000 2.5000 0.4000 200 200 210
0.0000 -2.5000 0.4000 200 200 210
0.0000 2.5000 0.8000 200 200 210
0.0000 -2.5000 0.8000 200 200 210
0.0000 2.5000 1.2000 200 200 210
0.0000 -2.5000 1.2000 200 200 210
0.0000 2.5000 1.6000 200 200 210
0.0000 -2.5000 1.6000 200 200 210
0.0000 2.5000 2.0000 200 200 210
0.0000 -2.5000 2.0000 200 200 210
0.0000 2.5000 2.4000 200 200 210
0.0000 -2.5000 2.4000 200 200 210
0.5000 2.5000 0.0000 200 200 210
0.5000 -2.5000 0.0000 200 200 210
0.5000 2.5000 0.4000 200 200 210
0.5000 -2.5000 0.4000 200 200 210
0.5000 2.5000 0.8000 200 200 210
0.5000 -2.5000 0.8000 200 200 210
0.5000 2.5000 1.2000 200 200 210
0.5000 -2.5000 1.2000 200 200 210
0.5000 2.5000 1.6000 200 200 210
0.5000 -2.5000 1.6000 200 200 210
0.5000 2.5000 2.0000 200 200 210
0.5000 -2.5000 2.0000 200 200 210
0.5000 2.5000 2.4000 200 200 210
0.5000 -2.5000 2.4000 200 200 210
1.0000 2.5000 0.0000 200 200 210
1.0000 -2.5000 0.0000 200 200 210
1.0000 2.5000 0.4000 200 200 210
1.0000 -2.5000 0.4000 200 200 210
1.0000 2.5000 0.8000 200 200 210
1.0000 -2.5000 0.8000 200 200 210
1.0000 2.5000 1.2000 200 200 210
1.0000 -2.5000 1.2000 200 200 210
1.0000 2.5000 1.6000 200 200 210
1.0000 -2.5000 1.6000 200 200 210
1.0000 2.5000 2.0000 200 200 210
1.0000 -2.5000 2.0000 200 200 210
1.0000 2.5000 2.4000 200 200 210
1.0000 -2.5000 2.4000 200 200 210
1.5000 2.5000 0.0000 200 200 210
1.5000 -2.5000 0.0000 200 200 210
1.5000 2.5000 0.4000 200 200 210
1.5000 -2.5000 0.4000 200 200 210
1.5000 2.5000 0.8000 200 200 210
1.5000 -2.5000 0.8000 200 200 210
1.5000 2.5000 1.2000 200 200 210
1.5000 -2.5000 1.2000 200 200 210
1.5000 2.5000 1.6000 200 200 210
1.5000 -2.5000 1.6000 200 200 210
1.5000 2.5000 2.0000 200 200 210
1.5000 -2.5000 2.0000 200 200 210
1.5000 2.5000 2.4000 200 200 210
1.5000 -2.5000 2.4000 200 200 210
2.0000 2.5000 0.0000 200 200 210
2.0000 -2.5000 0.0000 200 200 210
2.0000 2.5000 0.4000 200 200 210
2.0000 -2.5000 0.4000 200 200 210
2.0000 2.5000 0.8000 200 200 210
2.0000 -2.5000 0.8000 200 200 210
2.0000 2.5000 1.2000 200 200 210
2.0000 -2.5000 1.2000 200 200 210
2.0000 2.5000 1.6000 200 200 210
2.0000 -2.5000 1.6000 200 200 210
2.0000 2.5000 2.0000 200 200 210
2.0000 -2.5000 2.0000 200 200 210
2.0000 2.5000 2.4000 200 200 210
2.0000 -2.5000 2.4000 200 200 210
2.5000 2.5000 0.0000 200 200 210
2.5000 -2.5000 0.0000 200 200 210
2.5000 2.5000 0.4000 200 200 210
2.5000 -2.5000 0.4000 200 200 210
2.5000 2.5000 0.8000 200 200 210
2.5000 -2.5000 0.8000 200 200 210
2.5000 2.5000 1.2000 200 200 210
2.5000 -2.5000 1.2000 200 200 210
2.5000 2.5000 1.6000 200 200 210
2.5000 -2.5000 1.6000 200 200 210
2.5000 2.5000 2.0000 200 200 210
2.5000 -2.5000 2.0000 200 200 210
2.5000 2.5000 2.4000 200 200 210
2.5000 -2.5000 2.4000 200 200 210
3.0000 2.5000 0.0000 200 200 210
3.0000 -2.5000 0.0000 200 200 210
3.0000 2.5000 0.4000 200 200 210
3.0000 -2.5000 0.4000 200 200 210
3.0000 2.5000 0.8000 200 200 210
3.0000 -2.5000 0.8000 200 200 210
3.0000 2.5000 1.2000 200 200 210
3.0000 -2.5000 1.2000 200 200 210
3.0000 2.5000 1.6000 200 200 210
3.0000 -2.5000 1.6000 200 200 210
3.0000 2.5000 2.0000 200 200 210
3.0000 -2.5000 2.0000 200 200 210
3.0000 2.5000 2.4000 200 200 210
3.0000 -2.5000 2.4000 200 200 210
3.0000 -2.5000 0.0000 200 200 210
-3.0000 -2.5000 0.0000 200 200 210
3.0000 -2.5000 0.4000 200 200 210
-3.0000 -2.5000 0.4000 200 200 210
3.0000 -2.5000 0.8000 200 200 210
-3.0000 -2.5000 0.8000 200 200 210
3.0000 -2.5000 1.2000 200 200 210
-3.0000 -2.5000 1.2000 200 200 210
3.0000 -2.5000 1.6000 200 200 210
-3.0000 -2.5000 1.6000 200 200 210
3.0000 -2.5000 2.0000 200 200 210
-3.0000 -2.5000 2.0000 200 200 210
3.0000 -2.5000 2.4000 200 200 210
-3.0000 -2.5000 2.4000 200 200 210
3.0000 -2.0000 0.0000 200 200 210
-3.0000 -2.0000 0.0000 200 200 210
3.0000 -2.0000 0.4000 200 200 210
-3.0000 -2.0000 0.4000 200 200 210
3.0000 -2.0000 0.8000 200 200 210
-3.0000 -2.0000 0.8000 200 200 210
3.0000 -2.0000 1.2000 200 200 210
-3.0000 -2.0000 1.2000 200 200 210
3.0000 -2.0000 1.6000 200 200 210
-3.0000 -2.0000 1.6000 200 200 210
3.0000 -2.0000 2.0000 200 200 210
-3.0000 -2.0000 2.0000 200 200 210
3.0000 -2.0000 2.4000 200 200 210
-3.0000 -2.0000 2.4000 200 200 210
3.0000 -1.5000 0.0000 200 200 210
-3.0000 -1.5000 0.0000 200 200 210
3.0000 -1.5000 0.4000 200 200 210
-3.0000 -1.5000 0.4000 200 200 210
3.0000 -1.5000 0.8000 200 200 210
-3.0000 -1.5000 0.8000 200 200 210
3.0000 -1.5000 1.2000 200 200 210
-3.0000 -1.5000 1.2000 200 200 210
3.0000 -1.5000 1.6000 200 200 210
-3.0000 -1.5000 1.6000 200 200 210
3.0000 -1.5000 2.0000 200 200 210
-3.0000 -1.5000 2.0000 200 200 210
3.0000 -1.5000 2.4000 200 200 210
-3.0000 -1.5000 2.4000 200 200 210
3.0000 -1.0000 0.0000 200 200 210
-3.0000 -1.0000 0.0000 200 200 210
3.0000 -1.0000 0.4000 200 200 210
-3.0000 -1.0000 0.4000 200 200 210
3.0000 -1.0000 0.8000 200 200 210
-3.0000 -1.0000 0.8000 200 200 210
3.0000 -1.0000 1.2000 200 200 210
-3.0000 -1.0000 1.2000 200 200 210
3.0000 -1.0000 1.6000 200 200 210
-3.0000 -1.0000 1.6000 200 200 210
3.0000 -1.0000 2.0000 200 200 210
-3.0000 -1.0000 2.0000 200 200 210
3.0000 -1.0000 2.4000 200 200 210
-3.0000 -1.0000 2.4000 200 200 210
3.0000 -0.5000 0.0000 200 200 210
-3.0000 -0.5000 0.0000 200 200 210
3.0000 -0.5000 0.4000 200 200 210
-3.0000 -0.5000 0.4000 200 200 210
3.0000 -0.5000 0.8000 200 200 210
-3.0000 -0.5000 0.8000 200 200 210
3.0000 -0.5000 1.2000 200 200 210
-3.0000 -0.5000 1.2000 200 200 210
3.0000 -0.5000 1.6000 200 200 210
-3.0000 -0.5000 1.6000 200 200 210
3.0000 -0.5000 2.0000 200 200 210
-3.0000 -0.5000 2.0000 200 200 210
3.0000 -0.5000 2.4000 200 200 210
-3.0000 -0.5000 2.4000 200 200 210
3.0000 0.0000 0.0000 200 200 210
-3.0000 0.0000 0.0000 200 200 210
3.0000 0.0000 0.4000 200 200 210
-3.0000 0.0000 0.4000 200 200 210
3.0000 0.0000 0.8000 200 200 210
-3.0000 0.0000 0.8000 200 200 210
3.0000 0.0000 1.2000 200 200 210
-3.0000 0.0000 1.2000 200 200 210
3.0000 0.0000 1.6000 200 200 210
-3.0000 0.0000 1.6000 200 200 210
3.0000 0.0000 2.0000 200 200 210
-3.0000 0.0000 2.0000 200 200 210
3.0000 0.0000 2.4000 200 200 210
-3.0000 0.0000 2.4000 200 200 210
3.0000 0.5000 0.0000 200 200 210
-3.0000 0.5000 0.0000 200 200 210
3.0000 0.5000 0.4000 200 200 210
-3.0000 0.5000 0.4000 200 200 210
3.0000 0.5000 0.8000 200 200 210
-3.0000 0.5000 0.8000 200 200 210
3.0000 0.5000 1.2000 200 200 210
-3.0000 0.5000 1.2000 200 200 210
3.0000 0.5000 1.6000 200 200 210
-3.0000 0.5000 1.6000 200 200 210
3.0000 0.5000 2.0000 200 200 210
-3.0000 0.5000 2.0000 200 200 210
3.0000 0.5000 2.4000 200 200 210
-3.0000 0.5000 2.4000 200 200 210
3.0000 1.0000 0.0000 200 200 210
-3.0000 1.0000 0.0000 200 200 210
3.0000 1.0000 0.4000 200 200 210
-3.0000 1.0000 0.4000 200 200 210
3.0000 1.0000 0.8000 200 200 210
-3.0000 1.0000 0.8000 200 200 210
3.0000 1.0000 1.2000 200 200 210
-3.0000 1.0000 1.2000 200 200 210
3.0000 1.0000 1.6000 200 200 210
-3.0000 1.0000 1.6000 200 200 210
3.0000 1.0000 2.0000 200 200 210
-3.0000 1.0000 2.0000 200 200 210
3.0000 1.0000 2.4000 200 200 210
-3.0000 1.0000 2.4000 200 200 210
3.0000 1.5000 0.0000 200 200 210
-3.0000 1.5000 0.0000 200 200 210
3.0000 1.5000 0.4000 200 200 210
-3.0000 1.5000 0.4000 200 200 210
3.0000 1.5000 0.8000 200 200 210
-3.0000 1.5000 0.8000 200 200 210
3.0000 1.5000 1.2000 200 200 210
-3.0000 1.5000 1.2000 200 200 210
3.0000 1.5000 1.6000 200 200 210
-3.0000 1.5000 1.6000 200 200 210
3.0000 1.5000 2.0000 200 200 210
-3.0000 1.5000 2.0000 200 200 210
3.0000 1.5000 2.4000 200 200 210
-3.0000 1.5000 2.4000 200 200 210
3.0000 2.0000 0.0000 200 200 210
-3.0000 2.0000 0.0000 200 200 210
3.0000 2.0000 0.4000 200 200 210
-3.0000 2.0000 0.4000 200 200 210
3.0000 2.0000 0.8000 200 200 210
-3.0000 2.0000 0.8000 200 200 210
3.0000 2.0000 1.2000 200 200 210
-3.0000 2.0000 1.2000 200 200 210
3.0000 2.0000 1.6000 200 200 210
-3.0000 2.0000 1.6000 200 200 210
3.0000 2.0000 2.0000 200 200 210
-3.0000 2.0000 2.0000 200 200 210
3.0000 2.0000 2.4000 200 200 210
-3.0000 2.0000 2.4000 200 200 210
3.0000 2.5000 0.0000 200 200 210
-3.0000 2.5000 0.0000 200 200 210
3.0000 2.5000 0.4000 200 200 210
-3.0000 2.5000 0.4000 200 200 210
3.0000 2.5000 0.8000 200 200 210
-3.0000 2.5000 0.8000 200 200 210
3.0000 2.5000 1.2000 200 200 210
-3.0000 2.5000 1.2000 200 200 210
3.0000 2.5000 1.6000 200 200 210
-3.0000 2.5000 1.6000 200 200 210
3.0000 2.5000 2.0000 200 200 210
-3.0000 2.5000 2.0000 200 200 210
3.0000 2.5000 2.4000 200 200 210
-3.0000 2.5000 2.4000 200 200 210
-0.6000 -0.4000 0.7899 150 120 90
-0.6000 -0.2000 0.7793 150 120 90
-0.6000 0.0000 0.7797 150 120 90
-0.6000 0.2000 0.7717 150 120 90
-0.6000 0.4000 0.7720 150 120 90
-0.4000 -0.4000 0.7769 150 120 90
-0.4000 -0.2000 0.7753 150 120 90
-0.4000 0.0000 0.7866 150 120 90
-0.4000 0.2000 0.7732 150 120 90
-0.4000 0.4000 0.7705 150 120 90
-0.2000 -0.4000 0.7890 150 120 90
-0.2000 -0.2000 0.7806 150 120 90
-0.2000 0.0000 0.7729 150 120 90
-0.2000 0.2000 0.7809 150 120 90
-0.2000 0.4000 0.7705 150 120 90
0.0000 -0.4000 0.7806 150 120 90
0.0000 -0.2000 0.7896 150 120 90
0.0000 0.0000 0.7873 150 120 90
0.0000 0.2000 0.7839 150 120 90
0.0000 0.4000 0.7752 150 120 90
0.2000 -0.4000 0.7773 150 120 90
0.2000 -0.2000 0.7733 150 120 90
0.2000 0.0000 0.7854 150 120 90
0.2000 0.2000 0.7807 150 120 90
0.2000 0.4000 0.7856 150 120 90
0.4000 -0.4000 0.7766 150 120 90
0.4000 -0.2000 0.7745 150 120 90
0.4000 0.0000 0.7862 150 120 90
0.4000 0.2000 0.7897 150 120 90
0.4000 0.4000 0.7871 150 120 90
0.6000 -0.4000 0.7861 150 120 90
0.6000 -0.2000 0.7864 150 120 90
0.6000 0.0000 0.7848 150 120 90
0.6000 0.2000 0.7745 150 120 90
0.6000 0.4000 0.7804 150 120 90
0.2356 0.0529 0.9217 220 80 60
0.2279 0.0759 0.9616 220 80 60
0.2957 0.0947 0.9762 220 80 60
0.2988 0.1455 0.9419 220 80 60
0.2220 0.0727 0.9318 220 80 60
0.2204 0.1124 0.9740 220 80 60
0.2840 0.0979 0.9592 220 80 60
0.2800 0.0585 0.9596 220 80 60
0.2910 0.1282 0.9650 220 80 60
0.2478 0.0679 0.9673 220 80 60
0.2333 0.1301 0.9783 220 80 60
0.2396 0.0901 0.9768 220 80 60
0.2725 0.0670 0.9276 220 80 60
0.2151 0.1405 0.9684 220 80 60
0.2146 0.1327 0.9788 220 80 60
0.2657 0.0850 0.9529 220 80 60
0.2131 0.0514 0.9783 220 80 60
0.2650 0.1027 0.9760 220 80 60
0.2434 0.1372 0.9696 220 80 60
0.2211 0.0752 0.9376 220 80 60
